0.777791 0.724451 0.112108
-0.537379 -2.155923 0.646134
-0.333866 -4.515233 0.839480
-0.220478 -0.018777 1.129140
0.584962 0.988943 -1.741595
-0.487288 -1.445213 1.129140
0.208619 0.127191 0.335691
-0.348933 0.985378 0.450198
-0.074580 -2.796972 0.900793
-0.477579 0.632472 -2.043599
0.015590 0.758284 1.147358
0.554006 0.257665 -1.412327
-0.719811 0.602206 -0.716035
0.322692 1.316515 -0.075619
0.071947 -1.332313 0.625106
0.804092 0.902422 1.014166
-0.673792 0.175878 0.625106
-0.328922 1.365149 1.051932
0.566873 -0.354321 0.681502
-0.035940 1.332200 -0.920399
-0.180824 -0.098852 -0.772881
0.056897 1.030294 -2.147856
-0.713277 0.750485 -0.047835
0.781631 0.600306 -0.518842
0.049419 -0.044632 -1.672748
-0.178567 -0.633980 1.129140
0.068713 -2.217086 0.631618
0.095650 -0.132099 -0.197257
-0.559069 0.784347 -1.337772
-0.052105 -0.319597 0.625106
0.567223 0.527583 0.625106
0.650705 0.195633 -0.094865
-0.299492 -1.997729 1.129140
-0.554277 1.099404 -0.877670
0.260156 -0.289558 1.129140
0.401444 0.997243 0.384316
0.199673 -0.792435 0.625106
0.271168 -1.371911 1.129140
0.277497 1.191881 -1.355034
-0.441147 -1.613972 0.625106
0.557191 0.600248 -0.997857
0.117682 0.103833 -1.181516
-0.392290 0.160248 -1.847477
-0.606780 -0.300804 0.875793
-0.166114 1.328181 0.114992
0.186830 0.275602 1.147358
0.638414 0.480991 -1.854681
0.166868 1.131323 -0.511561
-0.461137 0.441552 0.268245
-0.691091 0.156159 1.115511
-0.723826 0.725340 0.625106
0.311952 -1.756689 0.627587
0.664519 1.028482 -0.327205
-0.377411 0.293363 -0.560773
0.383553 1.084697 1.143026
-0.161811 -4.073649 0.822850
-0.134243 -1.128922 1.129140
-0.126621 1.398791 0.625106
-0.363071 -4.972609 0.905601
-0.363418 0.481464 1.147358
0.702235 0.089999 0.672622
-0.222264 0.158989 0.573924
-0.077050 0.542145 -2.266975
0.471621 0.632439 1.147358
0.440308 0.774000 -2.130477
-0.482954 -1.176120 0.712031
-0.394387 0.926426 1.147358
0.165844 1.262047 -1.776850
-0.606947 1.138275 0.761380
-0.353682 1.040595 -1.974866
-0.215955 -2.389021 0.914311
0.677355 0.690909 -1.443287
-0.081911 -1.805398 0.797417
-0.155462 0.070120 0.114992
-0.185236 -3.212250 0.789428
-0.517879 0.124187 -0.920399
-0.622788 0.494231 -1.636171
-0.361124 0.969490 0.008341
-0.499303 -0.883321 1.029662
0.654168 1.166959 0.671725
-0.443861 0.841789 -0.480802
0.512848 0.413952 0.228622
0.143099 1.430414 1.129140
0.437372 0.106129 -1.775447
-0.082378 -1.570603 1.129140
0.112129 0.103102 -0.529975
-0.292564 1.032342 -1.173904
0.554922 0.583032 -0.191796
-0.481817 0.507394 -1.064158
-0.046816 1.372890 -0.260303
-0.158825 -0.958316 0.625106
0.623268 1.086592 0.060639
-0.694410 0.429991 -0.273053
-0.063102 0.125376 -2.052370
0.618819 -0.183810 1.042175
-0.226981 -0.084801 -0.393177
0.219929 -0.105738 -0.881166
0.404297 0.246575 -0.976733
-0.228887 1.079898 -0.689777
-0.568337 0.913003 -1.691137
0.849232 0.519816 0.872874
0.726641 0.327624 -0.765716
0.290939 -0.090382 0.625106
-0.063446 1.123561 1.147358
0.050915 1.146592 0.420154
0.821539 0.796112 0.625106
0.262220 1.092239 -0.974354
0.346665 -1.131719 0.859970
0.016799 -2.204381 1.129140
0.296322 0.163724 -0.028480
-0.385163 -0.157486 0.625106
0.463490 0.323253 -0.420841
-0.519820 -1.839924 0.891420
0.523441 0.802096 -0.662252
0.490831 0.880837 -1.205815
0.473189 -0.661835 0.820435
-0.773023 0.432792 0.836804
-0.478799 0.484467 0.611642
0.446619 -0.008205 -0.285010
-0.206001 0.152254 -1.058487
-0.493893 -0.495700 1.129140
0.160538 -0.636846 1.129140
0.381285 0.228918 0.599713
-0.532760 -2.183678 0.984926
-0.616937 0.998856 -0.243442
0.318175 -1.644659 0.943496
0.309767 0.024735 -1.482453
0.307236 1.321220 -0.738480
-0.216176 -2.055779 0.625106
0.272531 -2.228406 0.887579
0.268166 -0.467574 0.625106
-0.672198 0.345947 0.039207
-0.467834 0.783904 -0.898550
-0.304931 0.328937 -2.116448
0.167075 -0.102972 0.114992
0.436246 1.252726 -0.385474
-0.103426 -0.317861 1.129140
-0.478088 0.759144 0.223758
-0.083304 1.364419 -0.604903
-0.187971 -0.639270 0.625106
-0.689481 1.016913 1.062243
0.517408 -0.516690 1.101409
0.109561 1.138867 0.082070
0.388802 1.006944 -0.173758
-0.244535 0.005650 -1.569176
-0.259481 0.820418 -2.179996
0.646019 1.176673 0.994469
0.748668 0.836680 -0.920399
0.332604 1.096273 -1.982838
-0.022336 1.142046 -1.290431
0.433471 0.049771 1.129140
0.231750 0.580950 -2.254967
-0.715464 0.731199 -0.361237
0.155138 -1.029458 1.129140
-0.230434 -1.378290 0.625106
-0.534076 -0.150415 1.129140
0.275509 1.130695 0.625106
0.516456 0.821102 0.625106
-0.165143 1.106295 -0.201532
-0.670705 0.343147 -0.560721
0.328761 -1.454060 0.712492
-0.106224 0.321352 1.147358
0.743112 0.381738 -0.306448
-0.669099 0.895608 -0.665560
-0.019583 -1.865310 1.129140
-0.083719 1.204513 -1.920873
0.519793 0.810904 0.002368
0.199439 0.057457 -1.940608
0.005157 -0.017248 0.625106
-0.679460 0.365590 -0.897184
-0.430126 0.024440 -0.659048
-0.564676 0.459096 -1.353189
0.763723 0.785038 -0.186187
-0.484139 0.525034 -0.096682
-0.555205 -0.434531 0.625106
0.552407 0.677715 0.377186
-0.658961 -0.017983 0.851813
-0.482654 -1.170703 1.011748
-0.237247 0.166838 -0.253337
-0.381488 1.333627 0.771259
0.068440 -0.076738 1.129140
-0.051366 1.438680 0.898471
0.410328 1.350756 1.024996
-0.407146 0.207206 0.114992
0.483655 0.347857 1.147358
0.544290 1.025393 -1.462699
-0.447367 1.074223 -1.487093
-0.279877 -0.068699 -0.102530
0.194101 -1.077413 0.625106
0.295615 -2.050807 0.654966
-0.368896 -1.724154 1.129140
-0.489525 0.565952 -0.509522
0.760677 0.439445 0.099515
-0.406107 1.237760 -0.058078
-0.182067 -4.763094 0.864607
0.443859 0.297672 -0.705203
0.067375 1.287629 -1.517715
0.773542 0.651117 1.129140
0.061904 -1.636140 0.625106
0.033095 0.092699 -0.831447
-0.307976 1.290087 -0.893023
-0.538402 0.392131 -1.881360
0.527625 0.791993 -0.369078
-0.506632 0.218479 -1.592316
0.349133 1.037383 -0.694513
0.380466 1.189524 -1.609252
-0.535960 1.117395 -0.574494
0.791903 0.371964 0.625106
0.483599 0.016256 0.104740
-0.180918 1.099763 0.268269
-0.510963 0.102440 -0.409368
-0.626075 0.984191 0.069875
-0.424910 0.209568 1.129140
-0.496701 -1.423653 0.858642
0.472035 0.463915 -2.091540
-0.767453 0.416904 1.125141
-0.464127 -1.882472 0.625106
-0.193067 -4.313448 0.948413
0.781631 0.600330 -0.796920
-0.546473 -0.627663 0.902184
0.298913 -0.086968 -0.498923
-0.088476 0.012181 -1.352653
-0.266472 0.189265 -0.790111
-0.767078 0.818553 0.879260
0.051869 0.775589 -2.263152
-0.118472 1.125623 0.622850
0.620105 0.772133 -1.888897
-0.531439 0.907809 0.625106
0.149327 1.133632 -0.248434
0.489660 0.883665 -0.917517
-0.475218 0.766075 -0.200645
0.174487 0.537717 1.147358
-0.139543 -3.831246 0.918913
-0.170055 0.137369 -0.534338
-0.250543 -0.884255 1.129140
0.364916 1.102460 0.114992
0.537725 0.474025 -1.269564
0.305717 0.832175 1.147358
0.098455 1.140329 -0.779409
-0.255430 -2.982340 0.895773
0.047468 -0.130476 -0.618407
0.666592 1.024593 -0.584923
-0.335434 -5.206043 0.800092
0.059077 -1.955138 0.625106
-0.092250 1.132835 -0.479193
-0.476641 1.170526 1.129140
0.303343 -1.911675 0.868959
0.669206 0.424235 -1.607887
-0.444396 0.401128 -0.805968
-0.407487 1.116420 -1.733139
-0.098985 0.109682 0.358886
0.545973 0.515083 -0.562428
-0.106937 -3.433985 0.879690
0.385422 0.232092 -1.227676
-0.244948 -1.354289 1.129140
0.590453 0.116143 -0.871660
0.402605 0.996353 -0.440766
0.009760 0.310648 -2.203383
0.571076 0.920404 1.129140
-0.229401 0.691753 1.151483
-0.139662 1.116848 -0.986179
0.638084 -0.120576 0.786535
-0.431292 0.369484 -0.281675
0.084031 1.369794 -0.002516
0.010675 -1.328823 1.129140
-0.345617 0.251931 0.381343
0.164071 1.364796 -0.387561
-0.286415 -0.393234 0.625106
-0.601430 0.649823 -1.823931
0.243838 0.141777 -0.327552
0.025597 -2.214693 0.872342
-0.196069 -1.620430 0.625106
0.752515 0.222851 0.881101
-0.056101 -0.126985 0.010898
-0.329990 1.278348 -0.590979
-0.002353 -0.816876 1.129140
0.163887 -1.622140 1.129140
-0.709377 0.763298 -0.899736
0.623597 0.152133 -0.482139
-0.546597 0.739088 1.129140
-0.344940 0.990581 -0.931540
-0.299050 1.027365 -0.411188
-0.191550 0.018382 -1.804818
0.402764 -0.893003 0.823456
0.245245 0.142360 -0.726971
0.251972 -2.155564 1.129140
0.308904 -0.081640 -0.098979
-0.161331 -2.587065 0.790850
0.472265 0.254133 -1.975919
0.453107 0.309723 -0.165275
-0.406445 -0.967421 0.625106
-0.682964 0.578876 0.114992
-0.299692 -2.196626 0.801655
-0.641390 -0.088467 0.625106
-0.105695 1.416641 1.129140
0.105755 1.350096 0.625106
-0.701365 0.211840 0.885877
0.824368 0.388023 1.090588
0.160658 1.191133 1.137522
0.072918 0.097940 -0.011725
0.696089 0.652235 -1.705053
0.783019 0.962512 0.792571
0.488039 1.220448 -0.637563
-0.378086 0.294242 -1.002078
-0.527310 -1.974728 1.111636
-0.310940 -1.792675 0.769972
0.752739 0.832344 -0.494952
-0.176553 1.101570 0.037531
-0.233912 -2.200284 1.042414
0.065010 -0.607968 0.625106
0.780182 0.557359 -0.164845
-0.290523 0.580687 -2.196624
-0.447827 0.200854 0.625106
-0.705673 0.484198 0.625106
-0.495204 0.609098 0.417573
0.553881 0.575127 0.035063
-0.199846 -1.798846 0.990924
-0.360455 -0.312446 1.129140
0.261163 0.905696 -2.174062
0.494484 0.013615 0.625106
-0.479547 0.751479 -1.121508
0.562949 -0.367202 0.925285
-0.636850 0.692699 -1.532872
-0.393073 0.927852 -0.681199
0.592920 0.271598 -1.750962
0.558619 0.611079 -0.770894
-0.164938 0.904572 1.151483
-0.065817 0.539623 1.147358
0.127665 0.964678 1.147358
-0.173129 1.015042 -2.117545
-0.473291 0.849333 -1.997836
0.478930 0.343374 0.438263
-0.372356 0.954852 0.228188
0.471089 1.310595 0.625106
0.162807 -0.271566 0.625106
-0.597856 0.206536 -0.732600
0.509470 0.965042 -1.946917
-0.318065 -0.010609 -0.920399
-0.508103 -1.628970 0.988079
-0.212938 1.334325 -0.099507
0.619882 0.259549 0.114992
-0.501493 -0.871450 0.800037
-0.115626 -1.191250 0.625106
0.583514 0.386146 -0.920399
-0.007463 -0.102932 -0.920399
0.678382 0.011701 0.964781
0.469477 0.910569 0.195648
0.234457 1.103737 0.292281
0.469064 -0.564658 0.625106
0.340789 -1.237523 0.645183
-0.436895 1.135430 0.625106
-0.045476 0.109692 1.147358
0.132586 1.183620 -1.977046
-0.237882 1.178189 -1.357223
0.424839 1.225639 -0.920399
-0.356770 0.975164 -0.208467
0.410719 -0.010433 -0.920399
0.731169 0.903490 -0.007532
0.346073 -1.142383 1.076365
0.589025 0.282374 0.625106
0.176446 0.113867 0.615719
0.335160 -1.338869 0.919319
0.165936 1.131445 -1.162838
-0.492047 0.656572 -0.727209
0.387008 0.233309 0.279372
0.333247 0.192058 -0.528563
0.845190 0.583801 0.625106
0.249156 -0.007913 -1.738726
0.096725 -0.433466 1.129140
-0.058529 1.281290 -1.689511
-0.660343 0.924372 -0.454689
-0.725264 0.942503 0.711356
0.489228 1.219707 -0.182038
-0.442897 -1.387042 0.625106
0.176318 1.327294 -0.920399
-0.484078 0.717080 0.016059
-0.415773 -0.716551 1.129140
0.748817 0.849235 -0.705467
-0.575023 0.529876 1.129140
-0.258995 0.183528 -0.033419
0.116193 -0.007339 -1.397834
0.665149 0.840664 -1.616429
0.346620 1.039311 -1.228913
0.552968 0.673454 -1.208971
0.209615 0.127604 -0.937281
0.747138 0.394964 -0.518928
-0.510897 0.700641 0.625106
0.137459 -1.817584 1.001215
0.380304 -0.277848 0.625106
0.119102 1.368612 -0.650544
-0.017774 -0.128277 -0.422507
-0.422595 0.352244 -1.195720
-0.330230 -0.037817 0.104447
-0.259574 1.187718 1.129140
0.146117 -1.818065 0.775643
0.428616 -0.808144 0.639167
0.501045 0.144307 -1.574101
-0.721638 0.547986 -0.108614
-0.042926 -0.783011 0.625106
-0.716309 0.524323 -0.451782
-0.309722 -3.941715 0.866085
0.468825 -0.288526 1.129140
0.316293 -0.507502 1.129140
0.243356 1.100052 -0.068249
0.256637 1.302033 0.114992
-0.180777 -1.847198 0.625106
0.218051 0.059226 1.129140
-0.488954 1.260258 0.948762
-0.793296 0.634985 0.799762
-0.209010 0.153501 -1.275814
-0.402093 0.916097 -1.295087
-0.611526 0.232170 -0.265322
0.014095 0.010621 -1.881604
-0.211146 -5.101756 0.921289
0.500602 0.032151 -0.093644
0.471683 1.095486 0.625106
-0.217874 -0.049316 0.625106
0.445841 1.112581 -1.811893
0.849305 0.711176 0.818892
-0.323849 -4.176478 0.874315
-0.120720 -2.206571 0.712045
-0.325669 -1.067866 1.129140
0.432966 0.283477 0.054863
-0.715746 0.722824 -0.558133
-0.121942 -0.116777 -0.208995
-0.576055 0.601657 -0.920399
0.577734 0.618059 -2.001909
-0.250063 0.164525 -2.012984
-0.188281 1.340049 -0.442350
0.336183 1.312409 -0.546049
0.129068 1.438795 0.825310
0.736147 1.043757 1.129140
0.005886 1.145764 -0.082052
-0.332480 1.187483 0.114992
0.563444 1.247650 0.833881
0.593213 0.118722 -0.286821
0.493940 0.368292 -1.097987
-0.265896 -3.330832 0.920029
0.651622 0.466151 1.129140
-0.450358 0.826102 0.408298
0.477596 1.226956 0.020910
-0.490751 0.575269 -0.281114
0.024835 0.093383 0.174146
-0.011677 0.098184 -1.041049
-0.404365 0.008385 -0.282055
-0.602270 -0.325246 1.094971
0.343389 -0.118143 1.129140
0.244764 -0.099973 -0.680979
0.113412 0.179897 -2.113198
-0.463488 0.447231 0.075030
-0.418873 0.347394 -0.086227
0.366075 -1.013434 0.671893
0.696714 0.946552 0.625106
-0.544439 1.109469 -0.068430
-0.480142 0.009960 0.625106
0.074342 1.143504 0.607188
-0.412908 -0.006509 1.129140
-0.317227 -0.775913 0.625106
-0.069083 -1.481802 0.625106
0.614406 0.854673 -1.375896
0.467608 -0.680156 1.024357
-0.273858 -1.562664 1.129140
-0.496122 0.625568 -1.259196
-0.214608 1.228837 -1.777340
-0.168837 -3.149679 0.963839
0.538394 0.475640 -0.345454
-0.340618 -4.682102 0.920838
-0.450340 1.197431 -0.718567
-0.321697 -1.205296 0.625106
0.649284 1.057052 -0.144898
0.205491 0.125896 0.150549
0.092655 -2.035830 1.129140
0.263691 -0.095579 -0.318082
-0.293459 -0.060733 -0.563327
-0.198980 1.092283 0.455017
-0.431696 0.455638 -2.067045
0.534020 1.231299 1.129140
0.295231 -2.057715 0.980102
0.635060 0.170527 -0.702499
-0.507721 -1.622100 0.805065
0.014468 1.146894 0.241445
-0.395143 0.111056 -1.492153
-0.422655 -2.169466 1.129140
-0.656164 -0.033142 1.062429
-0.467929 0.056407 0.032998
0.235597 -1.584638 0.625106
-0.055305 -2.470208 0.894131
0.077064 0.098486 0.456721
-0.302155 -0.501754 1.129140
-0.566683 1.079496 -0.400270
-0.585556 0.183469 0.097124
0.550797 0.689934 -0.516763
-0.220680 1.403105 0.846242
0.544625 0.736787 0.206984
0.325139 1.315771 -0.258379
-0.533722 -2.090118 0.813807
0.256679 1.414727 0.950044
-0.073162 0.895229 -2.214171
-0.103909 1.131299 -0.807788
-0.138454 0.059144 -0.920399
-0.370671 0.088327 -1.668304
-0.688884 0.830614 -0.206136
-0.199877 -4.942263 0.838654
0.403150 0.995934 -1.027731
0.540406 0.761132 -0.190930
0.284105 -2.229049 0.654400
-0.689459 0.819806 0.114992
-0.079363 -0.045601 -1.524898
-0.556937 0.329539 1.129140
0.503194 0.850984 0.377308
0.323739 -1.544488 1.114769
-0.119214 0.116314 -0.720961
-0.616404 1.127271 0.938672
0.209537 -0.860097 1.129140
-0.606643 -0.264570 0.625106
-0.207373 1.335617 -0.753996
-0.184014 -3.704630 0.793297
-0.585897 0.861205 -1.495045
-0.181907 -2.639321 0.958685
-0.164759 -4.478846 0.876141
0.083369 -0.940181 0.625106
0.639037 0.410557 -1.434987
-0.647021 0.950580 -0.862379
0.685332 0.684743 0.625106
0.176817 0.415147 -2.237413
-0.348027 -0.567695 0.625106
-0.464669 1.062436 0.114992
-0.280615 0.307729 1.147358
-0.223765 -0.230316 0.625106
-0.015445 1.373146 -0.431964
-0.731104 0.861221 1.129140
0.287446 0.159837 -1.103128
-0.404474 -1.272445 1.129140
-0.531211 0.310093 -1.436383
-0.560326 0.155243 -0.570764
-0.789158 0.580184 0.969439
0.545401 0.510741 0.453641
-0.104715 -2.080547 1.129140
-0.380999 -5.368881 0.838796
-0.103705 -2.954249 0.817555
0.605908 0.036823 1.129140
-0.247169 -2.809941 0.885818
0.602637 0.744327 1.133998
0.293671 -0.637909 0.625106
0.023250 1.293807 1.129140
0.257154 0.052531 -1.321167
-0.276425 1.306911 -0.271329
-0.411207 0.904219 -1.085272
0.541841 -0.194662 0.625106
0.294146 0.415429 1.147358
-0.565692 0.820081 -1.834411
-0.579301 -0.449735 0.954723
0.347950 0.136988 -1.967814
0.519842 0.430840 -0.049408
0.152220 -1.200001 1.129140
0.026903 1.148532 -0.607106
0.380390 -0.966447 0.975374
0.459103 -0.001548 -0.454531
-0.119079 -0.117649 -0.586414
-0.316615 -4.339574 0.826782
-0.270801 1.309026 0.625106
-0.412890 0.339596 0.510149
0.226997 1.106827 0.464537
-0.477308 -1.074450 0.872510
-0.514077 -1.781390 1.061294
0.050816 1.146605 -0.389537
-0.130232 -0.469310 0.625106
0.015469 1.147026 -0.926944
-0.622319 0.751794 -1.690938
0.095026 -0.256420 1.129140
0.441198 0.947423 0.540178
-0.070412 -0.973268 1.129140
-0.495027 0.607752 0.143133
0.435843 0.954402 -0.020927
-0.247656 0.049807 -1.402001
0.225691 0.757948 -2.245240
-0.071173 -0.505145 1.129140
-0.732941 0.318458 0.720916
-0.115167 1.126991 -1.152032
-0.559977 0.324529 0.625106
-0.031657 -1.808189 0.973084
0.783062 0.642722 -0.307906
-0.252868 0.178825 0.264017
0.770528 0.471811 -0.901551
0.848283 0.724709 0.984418
-0.107738 0.730006 -2.259616
-0.060690 1.253478 -1.417885
0.044394 0.390449 1.151483
0.391259 1.005059 -0.862678
0.200924 0.704005 1.147358
0.005355 -1.791706 0.625106
0.735323 0.356147 -0.041146
0.560152 1.154111 -0.433215
0.024623 -1.103767 0.625106
-0.324088 1.008151 0.611892
-0.318829 -4.833524 0.802563
0.675161 1.005284 -0.920399
-0.209528 0.437722 -2.208730
0.095513 -0.132095 -0.775996
0.299236 1.075670 -0.293715
0.329721 -0.716451 1.129140
-0.411347 -2.052249 0.625106
0.019326 -1.700688 1.129140
-0.155449 -1.721745 1.129140
0.316077 -1.682425 0.774143
0.553588 0.572906 0.228050
-0.227141 0.152669 1.147358
0.259638 1.248568 -1.515496
0.402131 0.123054 -1.350889
-0.631980 -0.164220 0.770006
0.169603 -0.034671 -1.550219
0.538001 0.766940 -1.075562
-0.100165 -2.344939 0.796743
0.815732 0.354359 0.785923
-0.468190 0.975559 -1.878294
0.458659 0.924666 -0.303465
0.515548 -0.522793 0.911729
-0.447504 0.408634 -0.469276
-0.309622 0.222377 -1.167800
0.593973 0.738640 -0.920399
-0.231701 -3.501394 0.796346
-0.056448 0.104081 -1.197120
0.314144 -1.717224 1.088722
-0.561696 -0.545155 0.743689
-0.543444 0.292360 -1.732018
-0.317126 -5.217474 0.961989
0.289200 1.323696 1.129140
0.091564 1.369540 -0.176469
0.376464 0.571923 -2.183483
-0.484074 0.717110 -0.386334
0.149909 -0.121994 -0.447766
0.522300 0.436776 -0.728229
0.721928 1.067702 0.898532
0.310198 1.303665 0.625106
-0.717843 0.530929 -0.892395
-0.538740 0.291437 -0.920399
0.746749 0.858143 -0.328335
0.155952 -0.120591 -0.049334
-0.073310 1.196208 0.114992
-0.385382 -0.003445 -0.445880
-0.552721 0.936098 1.129140
0.499868 0.859016 -0.514949
0.317499 1.212401 -1.774954
-0.272856 0.194164 -0.426507
0.315058 -0.043687 0.114992
-0.636974 0.279891 -0.101483
0.201306 1.075735 -2.071577
0.781255 0.589176 -0.009022
-0.452600 -0.313128 0.625106
-0.289027 -4.827483 0.962961
-0.104140 -2.243349 0.961472
0.285011 0.158829 0.471360
-0.480474 0.904392 0.114992
0.102168 1.230207 -1.333737
0.155068 -2.221883 0.781067
-0.665766 0.906558 -0.069012
-0.387015 -1.788448 0.966996
0.649970 0.551093 -1.363073
-0.229980 -0.176626 1.129140
-0.655814 0.315222 -0.406069
-0.236447 1.154536 -1.914886
0.377345 0.225895 -0.326901
-0.352064 0.908054 -2.079673
-0.440425 1.206700 -0.909682
0.193930 -1.860739 0.625106
-0.498336 0.958201 -0.920399
-0.153227 -3.677119 0.944970
0.352836 0.207088 -0.833978
-0.304951 -2.185029 0.625106
-0.204724 -4.007301 0.962295
-0.473873 0.472309 -0.634033
-0.625720 -0.198146 1.006860
0.664891 0.832393 0.114992
0.431848 1.340410 0.848791
-0.313724 -1.510320 0.625106
0.585129 0.111166 0.017624
-0.506240 1.248457 0.719149
-0.691183 0.416091 -0.750990
0.568951 0.187380 1.129140
0.475924 1.032033 -1.314074
0.292854 -2.100500 0.802682
0.687253 0.254279 -0.374018
-0.196275 -4.222412 0.800124
0.462548 0.919599 -0.741324
-0.594479 1.034893 -0.743822
-0.430386 0.874327 -0.100828
-0.544660 -0.637489 1.097408
0.020054 1.371950 -0.767812
-0.341155 -1.752669 0.625106
-0.382365 0.690291 1.147358
-0.502938 0.958542 -1.401892
-0.067421 1.368107 -0.021951
0.381534 0.973275 -2.058272
0.372761 -0.047589 -0.744835
0.163023 -2.222325 0.993285
-0.487977 -1.266561 0.834486
-0.459493 0.804045 -0.746086
-0.527581 -1.979598 0.951241
-0.516166 -1.774167 0.718351
-0.229028 0.161790 0.422097
0.362424 0.043156 -1.651175
0.569020 0.341380 -1.897811
-0.364108 1.094208 -1.348802
0.405833 0.146734 0.114992
-0.388804 -2.191675 0.938264
0.001531 -0.637957 1.129140
0.540483 0.782876 -2.017324
-0.170626 -1.873246 1.129140
0.555082 0.657408 0.527004
-0.233407 1.077738 -0.874204
-0.495919 1.033684 -1.636055
0.776920 0.492809 -0.690969
-0.073715 0.106355 0.507513
0.734464 0.671976 -0.920399
0.558931 0.628197 -0.335099
0.612353 0.456303 0.114992
0.698568 0.272437 -0.902322
-0.445311 0.033903 -0.825250
0.542525 1.067492 1.129140
-0.069877 -2.087633 0.625106
0.548545 0.534617 -1.133339
-0.065499 1.103243 -2.063337
0.087893 -0.400641 0.625106
-0.280374 -4.434230 0.959193
0.139291 -0.082329 0.625106
0.503342 1.094469 -1.588218
-0.526395 -1.958255 0.744833
-0.500230 1.150795 -0.267442
-0.483938 0.718143 -0.553410
-0.712171 0.969730 0.923019
-0.531648 -0.708013 0.777911
0.011037 -0.184958 0.625106
0.472708 0.335266 -1.289601
-0.530044 0.104489 1.129140
-0.410784 0.753662 -2.097444
0.426317 0.484778 1.147358
0.707308 0.286461 -0.197307
-0.397037 0.318938 0.215820
-0.248115 -3.477138 0.948139
-0.240848 1.072028 -0.539568
0.702371 0.090443 0.839100
-0.291589 -5.065513 0.789876
-0.732966 0.318529 0.982724
-0.467391 -1.027123 1.129140
0.112305 -1.435274 1.129140
-0.123529 -3.298147 0.937622
-0.208158 -0.090531 0.041493
-0.317624 -1.900996 0.625106
0.617120 0.295079 -1.561642
0.597513 -0.253747 0.832802
0.809700 0.341811 0.945038
-0.539799 0.517380 -1.957435
0.056765 0.630795 -2.285175
-0.290827 -1.062106 0.625106
-0.374986 0.290202 -0.707142
0.324781 0.052063 0.625106
0.491607 0.362658 -0.558996
0.654096 -0.068015 0.650899
-0.327273 0.235922 -0.160932
-0.614736 0.565171 -1.440563
-0.401940 1.239982 -0.204994
-0.194613 -4.609975 0.818933
-0.363710 0.174029 -0.920399
0.576860 1.136239 -0.282127
-0.269527 1.050021 0.137574
-0.278329 1.014787 1.147358
0.326020 -1.503409 0.908160
0.823477 0.847143 0.880730
-0.219949 -5.286908 0.836412
-0.490682 -1.315277 0.998947
-0.158383 -0.105684 -0.916326
-0.216826 0.547041 1.147358
-0.028656 0.100420 -0.564555
-0.170032 -4.164519 0.935516
-0.626125 1.017572 0.625106
-0.706520 0.772681 -0.755137
0.061465 1.447200 0.988981
0.008991 -0.037781 0.114992
-0.163936 -2.731776 0.790136
-0.292386 -3.801501 0.835054
0.693221 0.263856 -0.547430
-0.187320 -3.908960 0.796623
0.537308 -0.451369 0.788120
0.839351 0.801877 1.111547
0.707887 0.593531 0.114992
0.029576 -1.100160 1.129140
0.503639 0.391714 0.586157
0.248952 0.143895 -0.183659
-0.719672 0.606331 -0.289718
0.699160 0.963518 -0.450777
0.340261 0.413561 -2.169372
0.444678 0.795691 1.147358
-0.373322 0.288033 -0.385311
-0.064746 1.437669 0.748587
-0.314427 -0.047665 -0.762845
-0.265478 0.188503 0.117933
0.480219 0.896569 -0.165282
0.525186 0.443745 -0.199515
0.065616 1.270500 0.114992
-0.489788 -1.587766 1.129140
0.856863 0.560265 1.009256
0.024857 1.148263 -1.136932
-0.525678 -0.740368 0.986742
0.007469 1.145972 -0.249362
0.146462 -1.453613 0.625106
-0.422720 1.223251 -0.498232
0.594275 0.985151 -1.591521
0.405541 1.158280 -1.472837
-0.360128 0.970787 -0.526423
-0.590009 -0.391699 0.767784
-0.612322 1.132021 1.093899
0.229524 1.063595 1.147358
0.168531 -2.106551 0.625106
0.305527 -1.872370 0.711977
-0.577179 0.340585 -1.566895
-0.416993 -1.859154 1.129140
-0.342499 0.042908 0.625106
0.690593 0.510663 -1.717879
0.075231 0.085014 -2.015454
0.040074 0.093617 -0.690244
-0.399092 -0.882342 1.129140
-0.678876 0.089953 0.953501
0.408472 0.187452 1.147358
-0.261565 -0.074273 -0.242317
-0.476427 0.477189 -0.920399
-0.233289 -0.373537 1.129140
0.185164 -1.248329 0.625106
0.778292 0.501354 -0.371945
0.842327 0.483214 0.736280
0.690550 0.979665 -0.715992
-0.706098 0.480338 -0.626884
0.530604 0.154732 0.625106
-0.126397 0.292628 -2.174695
0.213241 1.112524 -0.704115
0.098508 0.006537 -0.920399
0.760071 0.238569 0.652894
-0.655342 0.651133 1.129140
0.503157 1.040537 0.114992
-0.302955 0.810259 1.147358
0.047497 0.213716 1.147358
0.353392 1.034115 0.236057
0.033083 0.092697 -1.303483
0.701325 0.583980 -1.529317
-0.488609 0.682675 -0.992499
-0.776030 0.771071 0.745790
-0.200222 -3.074054 0.793142
-0.094210 1.279135 -1.550317
-0.667068 0.025953 0.699495
-0.124469 -3.587891 0.839091
0.637379 0.328225 1.129140
0.337439 -1.297824 0.769994
-0.145892 1.238731 -0.920399
-0.307607 1.290284 0.023776
-0.159646 1.108572 -0.339791
-0.325703 1.006912 -0.772585
-0.258606 1.058401 -1.025749
-0.345836 1.357967 0.914919
-0.622521 0.989895 -0.575906
0.409034 -0.440270 0.625106
0.223318 1.108351 -0.842937
0.221923 -0.928512 0.625106
-0.416511 0.247350 -1.951447
-0.119124 -2.917108 0.951184
-0.061663 -2.612704 0.882284
0.627768 0.601717 1.129140
0.227669 1.256528 -1.654052
0.338534 -1.278107 1.054769
0.241104 1.192704 -1.887361
0.442657 -0.762056 0.917191
0.724858 0.915326 -0.143823
0.539502 1.268229 0.967130
0.508009 1.081834 -0.920399
-0.109256 0.045560 -1.929136
-0.790022 0.591631 0.670265
-0.000172 1.264018 0.625106
0.047340 0.451247 -2.260825
0.793216 0.516148 1.129140
0.505595 1.209507 -0.793619
-0.395963 -0.180897 1.129140
-0.048455 -0.127243 -0.715030
-0.475477 -1.041464 0.730289
0.007226 1.252466 -1.831746
0.342200 1.042703 0.545653
-0.032486 0.934212 1.147358
-0.030748 -0.203177 1.129140
0.630902 0.871308 -1.791382
0.774272 0.739606 -0.781335
0.392134 -0.037259 0.003484
-0.419018 0.017517 -0.142306
0.650761 1.161009 1.129140
0.522600 -0.144856 1.129140
0.136172 -1.773200 1.129140
0.568440 -0.349179 1.060354
-0.591455 1.156300 0.628161
-0.488757 0.320469 0.114992
-0.109847 -0.031463 -1.655920
-0.602497 0.428922 -1.752863
0.778556 0.721157 -0.422397
0.227202 1.420287 0.660330
0.713241 0.481881 0.625106
-0.691635 0.418035 -0.138645
-0.184496 -3.369786 0.789948
-0.085668 1.133702 0.357381
0.656007 0.551975 -0.920399
0.485222 0.351573 -0.288908
0.169175 1.363242 -0.525986
-0.313406 1.190563 -1.658923
-0.118523 0.116028 -0.005315
0.075460 1.087971 1.147358
-0.060683 -1.318588 0.625106
0.230043 0.136064 -0.465566
-0.135627 1.236604 1.129140
-0.380118 1.262360 1.129140
-0.311016 1.288466 -0.439419
-0.250679 0.177146 -0.632389
0.718099 1.073311 0.758776
-0.270648 1.049160 0.351949
-0.556028 0.712709 -1.931557
-0.785284 0.721985 0.968315
0.080794 -0.131599 -0.334163
0.307166 -1.842864 1.023081
0.640630 0.967317 0.114992
0.736959 0.911689 1.129140
-0.249558 1.140312 0.625106
-0.444303 0.840722 0.539167
-0.542846 -0.599301 0.625106
0.058796 1.446999 0.703886
-0.492385 0.587684 0.287657
0.547053 0.075572 -0.754153
0.500862 0.201263 -1.840472
0.237122 1.102634 0.063129
-0.277648 -4.707831 0.790655
-0.647945 0.618221 0.625106
-0.041577 1.139511 0.517441
0.294341 0.052841 -1.845850
-0.608177 0.716854 0.114992
0.784508 0.685580 -0.618377
0.385330 0.232022 0.429361
-0.500693 -1.495550 0.749129
-0.208972 1.407211 1.020089
-0.604427 0.443841 -1.491210
0.394702 0.239213 -0.070107
0.319810 -0.947541 1.129140
-0.426675 0.883287 -0.269772
0.403750 1.239104 1.129140
-0.204804 -4.582541 0.945955
-0.681779 0.848687 0.625106
0.310816 -1.777139 0.863283
-0.678693 1.039346 0.806032
-0.109212 -0.120833 0.625106
0.550219 0.992099 0.625106
-0.449255 -2.188317 0.806844
-0.170579 -2.501493 0.960204
-0.423790 0.337888 1.147358
-0.448608 0.411297 0.408443
0.556576 0.646067 -0.646546
0.119526 -0.027457 -1.779769
0.441100 0.924651 1.147358
0.342495 1.042476 -0.009054
-0.719145 0.621982 -0.000945
-0.686879 0.449050 0.114992
0.197119 1.354737 -0.263680
0.308225 1.068772 -1.091912
-0.088144 -3.096708 0.879239
-0.492812 -1.353629 0.738497
0.456252 1.240259 -0.511537
0.639126 -0.117155 0.914667
0.289535 1.267301 -0.920399
-0.102784 -1.708212 0.625106
0.571098 0.490514 -1.992659
-0.361361 -1.422042 1.129140
0.102953 1.284387 -1.646278
-0.019339 -1.459176 1.129140
-0.292531 -1.829185 1.129140
0.528974 0.788736 -1.307082
0.758209 0.431336 -0.165107
0.390097 0.120681 -0.920399
0.593305 1.118646 -0.694804
0.290505 0.591177 1.147358
-0.267565 1.051526 -0.148375
0.719935 0.924558 -0.832152
-0.207122 0.419997 1.147358
-0.353217 0.261835 0.001551
0.044505 0.094200 0.299943
-0.221184 -1.229206 1.129140
-0.284438 -0.931047 0.625106
-0.324032 0.233435 0.590640
-0.116453 -1.332893 1.129140
0.144393 -1.902104 1.129140
-0.583643 0.649807 -1.348177
-0.477950 0.482151 -1.188696
-0.289184 -4.055363 0.812960
0.100076 0.886390 -2.223899
0.768601 0.256312 1.029413
-0.166091 -1.453758 1.129140
-0.116241 0.115083 0.227004
0.239237 1.101758 -1.262089
0.554264 0.262750 -0.920399
-0.603756 0.217599 -0.468019
-0.332127 -5.343228 0.958670
-0.486405 -0.953228 0.908101
-0.122592 -0.777147 1.129140
-0.102984 0.690753 1.147358
0.548725 0.705664 -0.061506
0.780962 0.710796 -0.043500
0.531743 0.782049 -0.819304
0.649852 0.393589 -1.764121
0.393996 0.291598 -2.067750
-0.695561 0.180386 0.749448
-0.265941 0.024817 -1.702983
0.741938 0.377879 -0.650960
0.438505 -0.775685 0.760467
0.208644 0.127202 -0.607594
-0.032567 -0.988768 0.625106
0.187384 1.357700 -0.755445
-0.226628 -2.200685 0.917205
-0.593620 0.806448 -0.920399
-0.632491 0.592047 -1.713612
0.286607 -2.212960 1.023584
-0.490655 0.667144 -0.856905
0.480940 0.895629 -1.041447
0.406166 1.271473 0.113021
-0.190345 -4.375841 0.810565
-0.466837 1.182011 0.035547
0.141780 1.134626 -0.933614
-0.531510 -0.147512 0.625106
0.121708 -0.771779 1.129140
0.423805 -0.680631 0.625106
0.057343 -1.558293 1.129140
0.319383 1.060210 -0.507080
0.370941 -0.396081 1.129140
0.510638 0.375892 -2.013077
0.712429 0.123459 1.006488
-0.255717 1.060618 -0.272684
0.545110 0.073756 -0.391597
-0.201562 -2.459422 0.813736
-0.482900 -0.328175 1.129140
-0.517496 -0.784713 1.113571
0.262345 0.017290 -0.920399
-0.257451 -3.824052 0.954655
-0.501063 -1.502196 0.953713
-0.413826 -1.122468 0.625106
0.157616 -1.742990 0.625106
-0.451253 0.823940 -0.607440
-0.209068 1.335525 1.129140
-0.519483 0.111554 -0.734667
0.173455 0.990320 -2.156403
0.550537 1.216520 0.625106
0.032731 0.092651 0.577008
-0.447900 0.409589 -1.301559
0.205685 1.352129 -0.004434
-0.402728 -0.432994 0.625106
-0.392813 0.313433 -0.881600
0.046030 -0.040146 -1.493028
0.076789 -1.814214 0.876832
-0.050755 -1.218751 1.129140
-0.396037 0.600575 -2.137419
-0.122766 1.209048 -1.322161
0.163125 1.253006 -1.437384
-0.195887 -2.267544 0.819440
-0.463960 0.366663 -1.989539
-0.197311 1.101507 -2.017924
0.151893 1.365169 0.114992
-0.105870 -1.970797 0.625106
-0.433361 0.867144 0.294417
-0.752010 0.571508 1.129140
-0.261450 1.056218 -1.289532
0.454511 0.311552 0.196979
0.575782 1.137392 -0.089916
-0.480974 0.500991 -0.396971
-0.263428 0.699066 -2.206581
-0.717575 0.668557 -0.185211
0.188929 -1.982276 0.625106
0.531383 0.782919 0.474000
0.542130 0.485907 -0.837575
-0.533442 -2.085078 1.061340
-0.328189 1.149337 -1.818908
0.420369 -0.022203 -0.166666
0.652981 -0.071676 1.102176
-0.394245 1.138050 -1.575375
0.658011 0.706285 0.114992
-0.719801 0.602510 -0.544310
-0.171534 -0.339715 0.625106
-0.483710 0.719874 0.360722
-0.374615 -5.111890 0.865310
-0.264988 -3.151203 0.859828
-0.292791 0.092928 -1.858891
-0.197792 -0.992784 1.129140
-0.101546 -2.207630 1.105850
-0.258477 -1.795589 0.878560
0.006302 -2.213625 0.734788
-0.389912 1.327787 0.625106
-0.475988 -1.050673 1.004049
-0.544211 0.963779 -1.542400
0.527825 0.450117 -0.462731
-0.757380 0.869993 1.012070
0.150533 1.238509 0.625106
0.167748 1.131207 -0.367455
0.323313 -1.552154 0.798567
-0.306965 0.064342 1.129140
0.325536 0.186140 -0.649349
0.469359 0.330901 -0.817550
-0.244723 -2.118475 1.129140
0.661656 1.155990 0.844847
-0.469305 -0.865685 0.625106
-0.118812 1.125482 -0.064295
0.404902 -0.030450 -0.586345
0.191293 1.121614 0.182385
-0.355286 0.099729 0.114992
-0.175439 -0.757944 0.625106
-0.134790 1.352467 -0.847166
0.676198 1.006579 -0.031574
0.348297 0.728480 -2.191010
-0.162964 1.044301 1.147358
-0.506504 0.628481 1.147358
0.459368 1.134750 -1.695829
-0.523309 -2.012138 0.625106
0.179842 0.015250 0.114992
0.520071 0.168829 -1.688808
0.189766 0.119384 -0.056600
-0.040297 -0.127518 -0.305925
0.181326 0.115888 -1.051998
-0.083846 1.133942 -0.647269
-0.280862 1.176216 -0.920399
0.273496 0.154060 -1.220749
-0.734219 0.322103 0.857210
0.638608 0.594556 -1.888717
0.672181 -0.008652 0.767897
0.187263 0.862287 1.147358
0.375219 -0.046278 -0.383846
-0.716513 0.271597 1.122451
0.501683 -0.568307 0.738786
-0.581342 0.177724 -0.020953
-0.409366 0.906619 -0.384413
0.327245 0.956534 1.147358
-0.314796 -1.628488 0.625106
0.412706 0.984554 -0.610059
-0.114947 -0.118907 -0.091132
-0.136501 -0.112345 -0.469840
0.231993 -0.057930 1.129140
0.045509 -1.514557 0.625106
0.313101 -0.827227 0.625106
-0.228685 0.134943 -0.920399
0.559491 1.154818 -0.570699
0.347626 -1.114422 0.729713
-0.084181 0.059546 0.625106
-0.476644 0.195421 -1.735992
0.217402 -2.018177 1.129140
-0.490875 0.576212 0.538968
-0.607794 0.455929 -0.920399
-0.396247 0.923716 -0.816444
0.365919 1.104657 -0.920399
-0.156858 1.347344 -0.329433
0.052446 -2.088896 0.625106
0.453805 0.649777 -2.141756
0.421491 0.268523 -0.558140
0.388976 -0.599660 1.129140
-0.775817 0.440762 1.010540
0.596531 0.121825 -0.602964
-0.478354 0.483128 -0.206072
0.267819 0.197891 -2.071900
0.540661 0.481112 0.320598
0.816268 0.867700 0.732227
0.449686 0.872844 -2.068289
-0.441800 0.394859 -1.088364
-0.425425 0.321510 0.625106
0.220048 -1.492148 1.129140
-0.246333 -4.996085 0.957047
-0.484949 0.531192 -0.817056
-0.016439 -0.524304 0.625106
0.349598 -1.078912 0.975783
0.556815 0.876118 0.114992
-0.117275 -1.068792 0.625106
0.258535 1.336043 -0.449298
-0.225871 -2.898816 0.813664
-0.592289 0.516019 -1.829455
0.489259 0.165945 -1.443073
0.201719 -0.487209 1.129140
-0.431008 1.068079 -0.920399
0.367083 1.295830 -0.838489
-0.548965 -0.010268 1.129140
-0.510587 1.030879 0.625106
-0.565567 0.408415 0.114992
0.329161 -1.446867 1.051867
0.733249 0.899590 -0.587737
0.596734 0.122014 -0.170704
0.115659 1.138064 -0.044803
-0.170259 1.243263 -1.466415
0.393485 1.181308 0.625106
-0.488840 -1.282108 0.647280
-0.657229 0.934201 -0.339195
0.077044 1.143148 -1.029354
0.048249 -2.215946 1.018220
-0.192887 0.610394 -2.251387
-0.181575 0.218018 -2.105733
0.694352 0.727137 -1.551677
-0.494280 1.035743 1.129140
0.182258 -0.668324 0.625106
0.729035 1.057291 0.629005
-0.329933 -1.182872 1.129140
0.856365 0.617717 0.752144
0.457690 0.315695 0.328648
0.112306 -0.921517 1.129140
-0.372668 1.255591 -0.780236
0.333433 -0.068560 -0.225871
-0.491587 0.660071 -0.083384
0.301038 -1.343408 0.625106
0.105812 0.043270 1.147269
0.564643 0.974944 -0.920399
-0.718707 0.634961 -0.844399
0.429535 -0.172953 0.625106
-0.484101 0.073706 -0.516754
0.052697 1.370850 -0.316294
-0.109275 -0.044692 1.129140
0.048586 0.504298 1.147358
0.288350 1.192564 0.114992
-0.322997 0.588439 1.147358
0.507478 0.038579 -0.863052
0.304844 0.234324 1.147358
-0.063432 1.022739 -2.146237
0.132498 1.135847 0.341795
0.311473 1.066280 0.377232
0.299088 0.165846 0.200602
0.609913 0.922172 -1.466906
-0.631652 0.269912 -0.820352
-0.331591 -0.085512 1.129140
-0.070619 -1.595162 0.625106
0.153448 -0.121172 -0.579308
-0.601612 0.747970 -1.436311
0.380099 0.228008 -1.114718
0.677914 0.769223 -1.703201
0.783974 0.669753 -0.152877
-0.024771 -2.000583 1.129140
-0.438168 -0.594071 1.129140
0.086761 -0.791757 0.625106
-0.264727 -1.680585 1.129140
0.263042 -0.010406 -1.608728
0.144423 0.107353 0.245018
-0.036894 0.101505 0.071202
-0.019692 0.009202 -0.920399
-0.559267 1.193752 1.015913
0.728039 0.332216 0.087682
-0.120115 -2.354841 0.963237
-0.692619 0.818346 -0.434794
-0.356272 1.130037 1.129140
-0.780075 0.459908 0.727779
-0.475129 0.468828 1.147358
-0.386337 0.936631 0.545925
-0.354726 -1.312382 0.625106
0.666168 0.697498 -1.819243
0.470139 1.166694 0.114992
0.425543 1.065686 -1.928469
-0.480080 -1.718908 0.625106
-0.562343 0.185740 0.625106
-0.093067 0.432696 -2.250962
-0.002556 1.144651 0.045570
-0.484246 0.525847 -1.308139
-0.349438 -2.193867 1.048378
0.186886 -0.192985 1.129140
0.344753 0.200886 -0.189642
-0.688944 0.830417 -0.570907
-0.490754 1.159652 -0.152429
-0.462135 0.208636 -1.434226
-0.109632 0.112346 -1.308558
-0.148654 -3.527363 0.947839
-0.038326 -0.649353 0.625106
0.692503 0.262704 -0.678245
-0.072160 -2.237006 0.810092
0.778419 0.505121 -0.576209
0.409754 0.988401 -1.152893
0.561781 0.950944 -1.849888
0.604588 0.028517 0.625106
0.625954 0.845026 -0.920399
0.018749 1.371994 -0.092804
0.256130 -1.075316 1.129140
-0.112965 -1.803673 1.059660
-0.647129 -0.082111 0.941442
-0.356727 0.975219 0.340108
0.689488 0.981656 -0.230007
0.533239 -0.464724 0.678272
-0.008489 1.408163 0.625106
0.146460 -2.221406 1.102616
-0.663088 0.328862 -0.241263
0.389379 1.006501 -0.330179
0.656106 0.204298 -0.826515
0.313192 1.397457 1.048992
-0.396384 -1.787928 0.839742
0.555700 0.652717 0.136370
0.552304 0.563154 -0.083331
-0.445021 -2.061485 1.129140
0.458007 0.925517 0.309862
-0.583770 0.180321 -0.358497
0.611831 -0.206750 0.709195
-0.218486 1.167540 0.114992
-0.108878 1.281032 0.625106
-0.501067 0.091854 -0.244126
0.248958 -0.098999 0.005231
-0.465082 1.042325 -1.790426
0.313636 1.176202 1.129140
0.554801 0.582110 -1.279291
-0.006406 1.175843 -1.993403
-0.328178 1.005013 -0.625689
0.341980 -1.216082 0.929970
0.779675 0.972046 0.901580
-0.011272 -0.413559 1.129140
-0.532047 -2.171972 1.129140
-0.671571 0.887489 -0.776602
0.397898 -0.908976 0.667797
-0.130684 1.353420 -0.168767
-0.456331 0.836733 1.147358
-0.316909 -0.046119 -0.331900
0.731028 0.178151 0.738791
-0.033017 0.192148 -2.132967
-0.194787 0.798383 1.151483
-0.301068 1.293771 -0.694763
-0.467827 0.783921 -1.278499
-0.546327 1.208808 0.817816
-0.467244 0.245041 -1.855315
0.304573 0.170055 0.083034
0.358988 1.375440 0.921464
0.227552 -0.184259 0.625106
-0.495145 0.608653 -0.392890
0.637004 0.855849 0.625106
0.035371 -0.526057 1.129140
0.083966 -0.131706 0.051444
0.050874 1.267159 -0.920399
0.702425 1.096270 1.040256
-0.168964 1.421240 0.722273
0.515871 0.229340 0.114992
-0.454218 0.816782 0.046034
-0.325445 -0.267410 0.625106
0.245198 1.340103 -0.651839
-0.167849 1.256172 -1.683713
-0.127911 -3.024866 0.953329
0.340427 1.311117 -0.383233
0.848347 0.723865 0.700946
0.159943 0.430716 1.147358
0.263530 -1.255700 1.129140
-0.369239 0.983858 0.114992
-0.695773 0.181535 1.008028
0.691333 0.381944 -0.920399
0.371429 -0.995861 0.814770
-0.430186 -1.128240 1.129140
0.411641 -0.863865 0.933958
-0.321612 0.231578 -0.309527
-0.317812 -0.045556 -0.002148
-0.177896 -2.780426 0.962623
0.301188 -1.950472 0.984597
-0.400504 0.005979 -0.551880
-0.366821 0.279562 -1.278191
-0.175702 -1.494856 0.625106
-0.274704 -3.415361 0.844137
0.453653 1.094708 -1.400895
0.753479 0.829156 -0.081726
-0.786781 0.548708 0.863298
0.318551 1.060849 -0.806797
0.588492 0.741553 0.625106
0.778334 0.502615 -0.072358
-0.281288 1.040995 0.012459
-0.304316 -4.260695 0.937752
-0.407223 -0.707059 0.625106
0.157525 0.261972 -2.165779
0.216567 -0.008482 0.625106
-0.443365 0.842988 -1.166645
0.185101 1.124178 -1.040858
-0.729667 0.365348 0.625106
0.524256 1.192512 -0.900300
0.250452 -1.476875 0.625106
0.129513 1.136240 -0.632961
-0.115622 -2.849441 0.802858
-0.249100 -3.606324 0.801359
-0.149433 0.128828 -0.840703
-0.596263 0.839004 1.129140
-0.638711 0.592398 -1.568303
0.458909 0.317283 -1.185679
0.346607 -0.011460 1.129140
-0.015276 -0.128361 -0.202674
0.368298 -0.254609 1.129140
-0.178546 -2.187837 0.625106
-0.491490 1.158965 -0.372834
-0.457691 -1.492063 0.625106
-0.228449 -4.734767 0.955653
0.024105 -0.129688 -0.058259
-0.690759 0.414265 -0.392280
0.286163 -1.129791 0.625106
-0.172449 -0.006920 -1.492504
-0.511071 -1.682416 0.892008
0.855295 0.631886 0.888752
-0.042989 1.373779 0.080869
-0.241500 -0.719023 1.129140
-0.429280 0.944373 -1.983384
0.723914 0.389018 1.129140
0.309706 0.173994 0.320190
-0.111023 0.112922 -1.008523
-0.636103 0.688468 -0.920399
0.630843 0.325783 -1.668708
0.658052 0.793615 -1.457762
0.288859 1.018338 -2.084283
-0.276540 -4.125738 0.953690
0.521737 0.435417 -0.990135
0.471593 1.321301 1.105494
0.233568 1.419086 0.847363
0.167440 -2.222572 0.667770
-0.683891 0.117133 0.843409
0.297784 1.076784 -0.608751
0.500668 -0.291424 0.625106
0.755184 0.821813 0.062260
-0.129761 0.191861 1.147358
0.350106 -0.059669 -0.850279
-0.695677 0.435447 -0.517573
0.129014 -2.220436 0.888744
-0.256135 -3.280607 0.824621
-0.005351 1.144283 -0.767678
0.045555 1.445999 1.094941
-0.214328 1.085927 -0.439424
-0.163682 -0.104071 -0.303915
-0.290895 1.378484 0.745000
-0.580135 -0.436903 1.129140
0.462997 0.314441 -0.920399
0.189939 0.119455 0.454134
-0.667843 0.046143 1.129140
0.555895 0.651237 -1.107142
-0.535149 -2.183545 0.865734
-0.333973 -4.936399 0.809786
-0.570183 0.851490 0.114992
0.286417 -0.617586 1.129140
0.184671 1.124356 0.574629
0.525149 0.452199 1.147358
0.320162 1.317285 0.034054
-0.481676 0.735321 0.531522
-0.130207 -1.802715 0.704322
-0.319339 1.284028 -0.159993
0.097198 -1.178007 0.625106
-0.363774 1.087532 0.114992
-0.716193 0.709556 0.054680
0.257699 1.094112 -0.403509
-0.449714 -0.547181 0.625106
-0.412997 0.901887 -0.937742
0.298121 -2.005692 0.760993
0.527830 -0.415275 1.129140
0.484953 0.890400 -1.308781
-0.506902 0.807212 0.625106
-0.151410 0.058355 1.129140
0.550929 0.872131 -1.965968
-0.127081 -0.859802 0.625106
0.047426 0.094585 -0.956250
0.561558 0.207906 -1.519457
-0.439816 -2.188843 0.655274
0.356655 0.827448 -2.162400
0.466129 1.145240 1.129140
-0.678432 0.864950 -0.913468
0.594399 0.421415 0.625106
-0.256596 1.059943 0.534199
0.203393 1.424777 1.045666
0.406441 1.004758 0.114992
-0.713610 0.512695 -0.205160
-0.074799 -2.706151 0.840766
0.470910 1.231123 -0.282827
0.858052 0.595391 1.110020
-0.374166 0.289134 -1.123211
0.168281 1.363514 -0.099729
-0.482163 0.510022 0.442489
-0.695844 0.436169 -0.004329
0.457916 0.925635 0.440992
0.201477 0.011912 -1.829080
-0.464635 1.184069 -0.606479
0.480193 -0.051330 1.129140
-0.335830 -0.601979 1.129140
-0.239482 1.326611 -0.589018
0.190989 -0.112457 -0.229497
-0.620550 0.409964 1.129140
-0.408423 0.333776 0.354683
0.535518 0.103966 0.114992
0.036657 1.110265 -2.066223
-0.725774 0.941442 0.825521
-0.189007 -4.858706 0.900570
0.169410 0.120857 -2.033465
-0.386569 -1.521237 1.129140
-0.483719 -1.189885 0.911326
0.049792 1.282001 -1.743622
0.329257 -1.445132 0.814319
0.401435 1.274421 -0.643391
-0.438286 1.294850 1.051671
-0.338810 0.996854 -1.257778
-0.354192 1.195204 0.625106
0.778226 0.499404 -0.269937
0.305541 -0.815565 1.129140
-0.097058 -0.030428 -1.757119
0.578761 1.116546 0.625106
-0.619768 -0.230409 1.128085
0.326460 1.054780 -0.108873
-0.089915 1.362885 -0.503295
0.552402 0.080573 -0.495454
0.524857 0.552826 -2.059457
0.225756 -1.822490 1.122374
0.166881 -0.477153 0.625106
-0.221524 -1.222732 0.625106
0.696114 0.783946 1.129140
-0.563147 0.562187 0.625106
0.769641 0.997809 1.007902
-0.688124 0.833111 0.014388
0.670473 0.227354 -0.271096
-0.615165 0.238994 -0.587243
0.164624 1.331287 1.129140
0.438884 0.291188 -1.061409
-0.013543 0.642955 1.147358
-0.551145 -0.602337 1.000270
-0.303800 0.217910 0.467235
-0.171972 -0.516087 1.129140
-0.315453 0.226852 -0.515878
0.227837 1.106479 -0.168215
0.323419 -1.550239 0.661761
-0.301418 1.171480 -1.435694
-0.481965 -0.977290 0.808183
0.650127 0.657459 -1.351827
-0.238820 -2.699545 0.900770
-0.583354 0.179876 -0.169875
-0.406431 -1.959622 1.129140
-0.439860 0.390174 -0.956399
0.589127 0.355703 0.114992
-0.222534 -0.086155 -0.681833
0.303845 -0.084337 -0.600684
0.028070 -0.129822 -0.519452
0.092187 1.141155 -0.142786
0.588469 1.226140 0.738638
-0.494905 0.634835 -1.080985
-0.532949 -2.076210 0.714008
0.573613 0.765923 0.114992
0.109501 0.798313 1.147358
-0.572885 1.069544 0.074683
0.622127 0.750835 -1.311564
-0.182379 -3.808538 0.796360
-0.417284 -1.786767 0.705225
0.751067 0.407872 -0.820964
0.132063 0.105726 -0.820788
-0.486067 0.539685 0.043139
0.370692 1.144475 -1.374158
-0.339928 -0.031773 -0.179534
0.045033 -1.001013 1.129140
-0.099934 -0.874868 1.129140
0.487257 -0.615657 1.117027
0.001057 -0.882904 0.625106
-0.443480 1.020629 -1.350262
-0.611220 0.245225 1.129140
0.742829 0.602627 0.625106
0.602872 0.386447 -1.344704
-0.495386 1.155323 -0.486206
0.550266 0.547682 -0.466456
-0.107182 -0.235927 0.625106
0.302968 0.645093 -2.225903
-0.608971 1.011639 -0.144433
-0.415366 -0.433548 1.129140
0.319721 -1.616829 1.045649
-0.491719 0.582621 -0.990733
0.667339 -0.024547 0.866624
-0.509561 -1.655226 0.696493
0.076470 1.370049 -0.850470
-0.485403 -1.220207 1.101970
0.771910 0.994190 0.693711
-0.448587 1.287818 0.829546
0.364578 -0.567438 0.625106
-0.254696 -0.076365 -0.879783
0.196868 -1.820885 0.861621
0.407196 0.128800 -1.867919
-0.264420 0.913023 1.151483
0.473212 0.305002 0.625106
-0.389204 0.334286 -2.047179
-0.160418 1.346517 -0.665568
-0.159121 -1.801108 0.871835
0.722009 0.800755 0.625106
-0.475208 0.134568 0.114992
0.294291 -2.074632 1.089614
0.517853 0.426036 0.122341
-0.353327 -0.055947 0.625106
-0.330046 -5.108751 0.954140
0.556109 0.649618 -0.897554
0.317287 0.686877 1.147358
-0.139258 -3.994398 0.888745
0.225563 -0.557246 0.625106
0.545696 0.826184 1.147358
0.421297 0.141779 0.625106
-0.285862 -0.654969 0.625106
-0.569919 0.604275 -1.906100
-0.406017 0.035031 -0.920399
-0.336251 0.242812 0.233806
-0.528438 -1.995025 0.853410
0.534656 0.775017 -0.567663
0.318107 -1.642065 0.625106
0.478634 0.898634 0.048755
0.043310 1.217052 -1.916793
-0.308355 0.106854 -1.348622
-0.774308 0.780203 1.088242
-0.057977 0.645847 -2.273853
-0.105960 0.110826 -0.464034
0.728688 0.334348 -0.414320
-0.266159 -3.926800 0.953414
-0.017233 0.098916 0.413093
-0.355152 -4.776212 0.895133
0.564884 1.149050 0.011467
-0.489888 0.672965 -0.229524
-0.550493 1.103810 -0.671049
-0.422765 0.890644 0.625106
-0.297318 0.046643 -1.496756
-0.671984 0.940024 1.129140
-0.055117 0.405390 1.151483
-0.295936 -4.028162 0.931846
-0.040982 -2.181664 0.625106
0.091560 0.030187 0.625106
-0.255978 -3.725719 0.952690
0.014727 0.010914 1.129140
0.160642 0.109487 -1.269785
0.531943 -0.468979 0.992303
0.625582 1.084118 -0.518353
0.070657 1.370244 -0.479178
0.357568 0.045329 -1.749271
0.520459 0.809297 0.268682
0.659837 1.037262 -0.824259
0.764517 0.781617 -0.618084
-0.289204 -0.137321 0.625106
-0.220817 -3.056042 0.951135
0.043031 -0.277571 0.625106
0.428231 0.077004 -1.587062
0.222882 0.015201 -1.404924
-0.717668 0.530174 -0.782245
-0.109508 -3.257269 0.831903
-0.295150 1.030358 0.259178
0.488588 0.885662 -0.625381
0.559563 0.536436 -0.920399
-0.141074 1.431020 0.954051
-0.046748 -0.127301 -0.812648
-0.579483 0.175736 -0.864971
0.831309 0.424816 0.859648
0.630469 1.078889 -0.403479
-0.369483 0.958596 -0.088247
-0.492963 0.295898 -1.347777
-0.108173 -1.948070 1.129140
0.228806 -0.103678 -0.777014
-0.193899 0.054362 -1.321070
-0.461763 1.262306 0.625106
0.621871 0.190931 0.625106
-0.061014 -0.126820 0.107933
-0.511260 -0.818511 0.880893
-0.263677 -4.436376 0.790801
-0.152782 -4.245887 0.885379
-0.313764 0.135653 0.625106
-0.473522 -1.725047 1.129140
0.402774 1.273587 -0.041756
-0.440367 0.147976 -1.598376
0.460801 0.552432 -2.132181
-0.296260 -3.701014 0.865382
0.222581 -1.822313 0.712083
-0.325001 -0.971043 1.129140
0.600865 0.618337 0.625106
0.218368 -0.714443 1.129140
0.550906 0.689107 -0.409833
0.674803 0.599880 -1.799168
0.430730 0.961064 -1.243234
0.245427 -1.823582 0.951286
0.773936 0.267412 0.791212
-0.605102 -0.309899 0.718664
-0.103326 0.110254 -1.112891
0.639998 1.034590 1.129140
-0.048524 -2.374527 0.882977
-0.363512 0.966377 -1.169570
0.029757 1.148908 -0.510618
-0.122781 -0.020710 0.114992
-0.261441 0.985940 -2.091809
-0.199293 0.057602 -1.892556
-0.513251 -1.721681 0.799158
-0.046147 0.804061 -2.255796
-0.595990 1.032468 -0.041886
0.368141 0.218832 -0.729385
0.689476 0.048119 1.061992
0.379507 1.357109 1.129140
0.429150 -0.490017 1.129140
0.485365 0.889862 -0.389118
-0.202359 -0.544118 0.625106
-0.285851 0.204136 -1.045038
-0.188850 0.042344 0.625106
0.257956 0.147624 -0.822117
0.569873 0.939818 -1.378443
-0.225665 -1.797412 0.693983
-0.259874 1.254260 0.114992
0.782894 0.702474 -0.516546
0.774956 0.486358 -0.466762
-0.027441 1.373550 -0.682432
-0.224441 1.331654 -0.000435
-0.473324 0.770646 -0.104837
0.102385 0.547448 -2.272310
0.448095 -0.744207 1.092922
-0.003138 1.033195 1.147358
-0.136451 1.118177 0.522746
-0.363097 0.406069 -2.111729
0.645892 0.187908 0.000405
0.490460 0.359889 0.052365
0.367885 -1.007493 1.060840
